ply
format ascii 1.0
comment Created by Open3D
element vertex 814
property double x
property double y
property double z
property double nx
property double ny
property double nz
property uchar red
property uchar green
property uchar blue
end_header
12.1782 30.8311 43.7305 0 0 1 222 117 100
-21.7906 -3.28856 -15.3833 0.0846476 0.63533 -0.767588 249 116 100
36.5273 -40.0393 -31.3198 0 0 1 186 75 62
9.80807 26.9225 26.6742 0 0 1 239 186 171
26.1734 34.09 55.6915 0 0 1 189 146 125
-45.618 1.34292 -7.02669 0 0 1 222 88 72
43.7286 19.6762 14.7869 0 0 1 238 183 165
-49.7697 -53.6681 -23.0516 0 0 1 252 193 179
-19.0896 -36.4874 -30.677 0 0 1 244 158 145
-53.7313 -7.66413 -17.9348 0 0 1 227 81 75
-38.5472 -2.19381 -13.6015 0 0 1 245 86 69
24.4264 38.8642 51.637 0 0 1 215 117 103
-5.34498 -35.6237 -30.3432 0 0 1 243 159 145
-27.0479 -41.1904 -30.3516 0.979892 0.191791 -0.0550314 238 150 137
-54.2779 26.5708 28.7502 0 0 1 211 134 114
37.993 37.0939 39.0345 0 0 1 236 169 156
12.508 3.32555 -10.4044 0 0 1 244 192 177
32.1373 16.8193 11.8743 0.101719 0.819029 -0.564663 239 182 165
36.1532 19.8103 16.4128 0.0309187 0.725286 -0.687753 240 192 176
12.7702 -34.671 -29.5725 0 0 1 223 104 86
-34.0501 8.66957 0.861243 0 0 1 229 90 80
21.5019 -51.9035 -30.3708 0 0 1 237 166 153
23.0074 -8.49072 -14.2077 -0.0760283 -0.464911 0.882087 227 128 113
20.3752 -6.10978 -13.452 0 0 1 229 125 110
-11.2655 -13.1564 -23.2825 0 0 1 233 105 91
30.1059 15.7697 4.54724 0 0 1 233 167 158
-38.0977 -51.6471 -25.0993 -0.193092 0.176431 -0.965188 252 210 198
-9.56221 24.7938 17.0341 0 0 1 229 111 95
6.73505 33.9723 36.763 0 0 1 214 100 83
-45.2523 2.65063 -5.50921 0 0 1 220 111 108
1.64306 4.24925 -11.2353 0.761634 -0.644732 -0.0650754 253 169 138
22.0321 36.6714 33.0883 0 0 1 234 170 153
41.2002 -7.49729 -13.8921 0 0 1 222 118 96
4.62689 34.3579 20.826 -0.3996 -0.734351 0.54868 237 164 142
8.98026 -2.52771 -14.9348 0 0 1 236 140 126
-49.3591 8.169 2.99566 0 0 1 213 75 56
-19.3725 -28.9854 -30.1373 0 0 1 226 94 79
42.7635 -16.4393 -18.3473 0 0 1 228 145 121
-15.4462 3.28432 -8.71517 0.110692 -0.754475 0.646927 254 192 173
-52.4016 -12.4566 -24.2815 0 0 1 243 97 78
-11.6888 31.999 39.3236 -0.0581611 0.83157 0.552366 202 155 158
23.1027 -5.58943 -12.6687 0 0 1 227 124 111
-22.4069 30.0919 50.8621 0 0 1 211 186 174
-11.0696 12.182 -1.20329 0.152238 -0.729998 0.666278 236 117 110
18.4662 24.748 20.7667 -0.0250387 -0.890492 0.45431 235 165 146
-18.245 6.84406 -5.09976 0 0 1 248 130 111
-21.2464 5.27356 -6.6938 0 0 1 242 95 79
41.4156 10.6236 3.34338 0 0 1 238 177 156
-35.5342 -60.0535 -28.0173 0 0 1 247 211 203
33.4145 7.7129 1.47015 -0.0224913 -0.779079 0.626522 240 185 167
6.51441 28.1224 31.1415 0 0 1 236 175 165
-29.8378 -24.3675 -29.3905 0 0 1 237 117 102
2.36004 -19.4953 -24.197 0 0 1 227 109 91
-28.5182 -59.0876 -31.9378 0 0 1 248 198 188
29.1453 36.961 55.1278 0 0 1 208 135 110
-4.32258 11.3388 -2.9737 0.567155 0.683905 -0.458922 233 110 94
32.7105 14.6617 4.0512 -0.137497 0.636397 -0.759009 237 187 181
-1.39127 34.3418 22.7622 0 0 1 193 83 72
-5.94683 -21.4383 -26.1783 0 0 1 234 127 112
45.299 30.9739 31.6286 0 0 1 219 191 182
-16.2651 10.9468 -1.34802 -0.0920758 -0.709574 0.69859 237 111 101
39.0174 37.8017 49.4918 0 0 1 192 139 120
-30.172 23.7732 21.4586 0.0390564 0.71732 -0.695648 228 161 160
17.209 -3.69858 -13.1505 0 0 1 231 130 115
-23.5349 -54.9853 -30.5981 0.0550867 0.401531 0.914187 250 197 186
-26.9551 23.667 20.7627 0 0 1 232 159 160
32.336 38.8391 46.5245 0 0 1 236 168 159
14.6179 17.9942 4.51565 0.0727134 0.703746 -0.706721 236 170 161
19.7266 -37.6676 -29.8639 0 0 1 227 122 106
-14.8581 -30.9648 -30.5273 0 0 1 227 95 78
20.4892 38.483 41.2269 0 0 1 229 151 132
20.8362 -44.5698 -28.5842 0 0 1 241 175 160
44.6703 28.9298 35.6972 0 0 1 232 185 168
14.074 18.8269 5.28891 0 0 1 235 165 155
32.154 19.2502 8.18798 0 0 1 233 165 155
5.6041 -32.3645 -29.6941 0 0 1 223 94 71
-24.2781 -6.9735 -18.832 0.15483 0.65838 -0.736589 247 123 106
-13.8503 -13.7783 -23.4258 0 0 1 239 118 102
-50.5921 -8.83674 -20.134 0 0 1 239 109 87
19.8567 -13.2915 -17.4364 0 0 1 227 117 98
-42.9588 1.69534 -7.13781 0 0 1 238 176 173
21.7509 -9.05378 -14.5929 0.0861801 0.424283 -0.901419 228 133 118
27.6019 -2.07723 -8.88842 0.181037 -0.498471 -0.847793 235 165 146
0.929498 -1.61216 -15.2315 -0.0570101 0.566496 -0.82209 254 189 172
-31.0559 -11.8325 -23.5596 0 0 1 241 107 91
-18.8163 33.1804 30.791 0 0 1 197 86 67
-2.08621 23.6432 8.22887 0 0 1 239 201 196
11.2308 9.76923 -1.97452 0.18728 0.766368 -0.614497 241 187 174
35.799 -4.3645 -11.8532 0 0 1 209 94 75
37.6117 20.7248 17.8009 -0.00378907 0.778716 -0.627366 240 188 171
30.7253 7.36495 1.02736 0 0 1 241 189 172
11.0598 30.7595 51.7222 0 0 1 198 90 73
32.6934 15.472 4.73366 -0.120827 0.638002 -0.760496 237 195 190
25.5772 -6.49322 -12.7478 0 0 1 228 136 123
26.1066 -8.83507 -14.2278 0 0 1 224 122 109
16.5856 19.5923 10.9713 0.0491086 0.962307 -0.267495 234 158 142
28.1034 -1.04405 -9.38881 0.181037 -0.498471 -0.847793 229 134 117
20.7191 27.8332 28.1784 0.0122534 -0.959312 0.282082 234 159 139
-11.7908 20.0627 9.83174 0.0345281 0.979398 -0.198965 252 182 155
31.0687 -13.653 -17.0113 -0.274229 0.311571 -0.909792 216 118 102
-7.93703 29.1731 29.94 0.0264696 0.988292 -0.150261 189 99 103
-4.56251 -56.0782 -37.2707 0 0 1 248 193 183
9.71442 -25.2352 -25.3087 0 0 1 229 128 116
-1.03441 -38.4389 -31.0663 0 0 1 243 158 145
6.07253 -12.1235 -20.0526 0.242568 0.395356 -0.88592 230 118 102
37.4072 -40.8556 -28.1212 0 0 1 191 86 71
20.8807 -3.3361 -11.7456 0 0 1 230 134 120
38.4453 38.4774 46.6027 0 0 1 238 165 145
-8.4293 -0.853749 -13.6786 -0.117763 -0.779012 0.615851 254 185 166
27.5779 31.9103 24.4824 0 0 1 229 141 126
-6.38549 5.07729 -8.8477 -0.0080162 0.545815 -0.837868 247 137 127
-31.8853 -29.9996 -29.3698 0.00189275 -0.201336 -0.97952 251 170 155
11.3277 23.1314 15.9853 0 0 1 232 137 118
-30.6334 25.1283 22.8301 0 0 1 221 102 96
-20.8902 -5.97949 -17.684 0.0100464 0.593717 -0.804611 252 157 141
2.79968 -44.7589 -33.9587 0 0 1 237 155 147
6.80764 -38.5611 -30.111 0 0 1 242 159 149
-5.4981 -18.2834 -25.1405 0 0 1 228 110 96
-18.7586 34.2814 50.2593 0 0 1 200 164 145
33.0323 21.0041 17.5707 0.164327 0.747234 -0.643923 237 172 153
2.1174 -17.5253 -23.4253 0 0 1 227 107 90
37.8281 29.528 22.3065 0.0495789 0.794517 -0.605215 230 146 131
-40.1449 -0.492505 -10.9289 0 0 1 243 105 90
-23.0415 11.6985 1.27075 0.0481224 -0.840888 0.539065 242 183 178
28.1793 -24.4944 -21.9721 0 0 1 228 130 115
26.739 11.8664 0.632023 0 0 1 233 163 154
38.7312 38.2121 44.5761 0.0483808 0.749307 -0.660453 238 163 143
-52.6721 31.7812 36.5838 0 0 1 207 147 126
-42.9463 -44.4427 -27.3171 0 0 1 240 158 146
12.3236 -2.84889 -14.1899 0 0 1 231 130 116
-12.2746 -1.58732 -14.5466 -0.415146 0.567524 -0.711035 249 120 103
-13.9725 -17.0812 -24.8946 0 0 1 240 137 118
2.69826 23.5932 15.571 0 0 1 235 144 129
-24.8325 19.0417 11.9618 0 0 1 243 121 105
-12.101 -0.448901 -13.4927 0.129391 -0.827748 0.545977 249 123 104
-3.20973 35.0523 34.8793 0 0 1 223 189 184
-38.546 38.8642 46.565 0 0 1 204 105 84
24.8442 11.1355 -0.0784405 0 0 1 238 183 177
-30.9338 0.832627 -10.395 0 0 1 248 102 83
-23.8555 -47.2342 -29.3727 0.241917 -0.0963698 0.965499 251 193 181
-44.9967 8.62754 3.3422 0 0 1 222 96 81
-32.4008 38.4213 51.5431 -0.0124367 0.919772 0.392255 203 162 145
-9.55131 35.2963 20.1116 0 0 1 141 111 100
-54.3969 30.9181 32.0384 0 0 1 211 203 189
-8.04799 33.2286 26.0564 0 0 1 115 47 39
-27.5388 -45.8066 -30.8994 0 0 1 241 168 157
43.4509 -26.9836 -24.3527 0 0 1 194 102 91
12.957 -0.936301 -13.1267 0 0 1 231 133 119
-51.7742 -59.0456 -23.4739 0 0 1 249 205 199
-2.06976 -13.7535 -22.8704 0 0 1 226 103 87
20.1289 29.9571 34.5681 0.0264138 0.94908 -0.313926 232 157 138
-0.660662 24.1251 16.2446 0.068584 0.93587 -0.345606 236 132 117
-19.9474 -55.7622 -32.0213 0 0 1 251 203 194
6.2684 -50.4714 -35.3595 0 0 1 233 144 133
-43.2453 -58.0413 -24.5839 0 0 1 248 193 182
11.8449 -42.1685 -30.1901 0 0 1 242 163 153
45.2325 -30.7755 -27.5583 0 0 1 180 88 77
-33.8303 -35.5033 -28.7445 0.228441 0.261809 0.937694 237 131 116
-45.103 38.0451 43.737 0 0 1 201 114 92
35.2279 19.292 8.47449 0 0 1 232 160 149
44.3329 35.0027 41.2603 0 0 1 217 177 163
-46.8011 -35.7637 -28.3295 0.405847 -0.129961 -0.904654 250 184 164
-38.0548 1.22584 -8.50356 0 0 1 246 139 122
-54.7066 20.5546 18.9038 0.969482 -0.110387 -0.218906 210 130 111
45.112 31.7496 27.7001 0 0 1 227 164 147
34.1742 31.3555 38.7665 0.310661 0.917238 -0.249328 232 156 137
32.4629 3.77089 -3.1705 0 0 1 238 175 154
-49.4584 0.193398 -8.59911 0.172952 -0.774302 0.608723 214 75 70
11.0294 -31.9099 -27.3742 0 0 1 240 157 144
-47.2081 8.18356 2.99819 0 0 1 218 88 71
-53.2956 -6.35519 -16.3463 0 0 1 224 79 74
-2.61381 7.93631 -8.04852 0 0 1 236 142 137
-54.4352 -45.6289 -27.2614 0 0 1 248 172 157
12.6787 36.2977 28.4654 0 0 1 225 127 106
-2.49107 -25.623 -27.4798 0 0 1 230 118 102
-16.0851 30.8588 24.6792 0 0 1 210 103 81
-1.51634 -8.34556 -19.1677 0 0 1 254 189 172
-37.4302 -48.7306 -28.639 0 0 1 239 168 157
25.6513 2.54417 -7.60357 0 0 1 227 131 118
14.4754 35.8743 27.7529 0.0749618 0.928409 -0.363919 227 131 112
-9.32429 8.6481 -4.58625 0 0 1 251 155 143
-3.89568 12.9111 -0.700141 0.265389 0.517837 -0.813274 251 202 188
-22.8554 6.9576 -4.02344 0 0 1 250 199 190
22.2923 32.0069 44.7647 0 0 1 228 138 120
38.6047 -45.5053 -33.0003 0 0 1 184 84 71
-23.5185 24.626 20.207 0 0 1 208 136 115
38.5574 25.4697 25.8505 0 0 1 240 187 169
-29.8663 -59.3819 -30.125 0 0 1 248 197 187
37.0195 30.8194 42.5007 0.159273 0.96782 -0.194824 230 198 187
-2.26645 -42.1061 -32.9351 0 0 1 245 169 159
8.27379 36.7149 29.7337 0 0 1 218 113 91
-33.1743 38.8642 50.4801 0 0 1 205 151 135
-25.9313 -11.4873 -22.3946 -0.10758 -0.60636 0.787879 255 173 152
2.11115 6.10639 -7.44427 0.0401745 -0.627414 0.777649 255 187 163
28.502 7.60451 0.854579 0.023575 0.687669 -0.725641 240 187 170
-48.9577 -43.0464 -26.503 0.28949 -0.324212 -0.900601 255 191 174
-23.6237 -42.4888 -29.498 0.127868 0.107653 0.985931 255 194 178
-40.3656 -48.0203 -24.713 0.183726 0.0990763 0.977972 255 200 187
9.18512 19.9853 5.47684 0.255809 0.618681 -0.74283 241 205 202
-42.7037 -44.3415 -24.6475 -0.0960597 0.0147585 -0.995266 255 194 177
36.0057 21.9979 11.6158 0.02711 -0.76561 0.642734 232 159 146
3.0021 7.23599 -6.49555 -0.48591 0.786168 -0.381879 255 188 163
-27.3631 -16.1286 -25.4206 0 0 1 245 150 131
25.2797 -44.9586 -31.6449 0 0 1 207 93 76
-19.6724 -45.7587 -30.513 -0.341697 0.135665 -0.929967 255 195 180
-6.06615 0.273606 -13.3365 0.0472801 -0.717092 0.695373 251 156 143
-37.5577 -49.5749 -25.395 -0.321004 -0.0813223 -0.94358 253 214 204
-31.8013 -46.6665 -27.2873 0.298205 -0.0981703 0.94944 255 198 183
26.5051 29.0305 31.5207 0.0918403 -0.892281 0.442041 235 167 149
22.7156 18.1869 6.28515 0.137106 0.78567 -0.603261 235 169 161
-15.6652 -9.88797 -20.7633 -0.0719475 0.612496 -0.787192 254 176 158
-33.4899 -37.93 -27.4295 -0.279876 -0.285108 -0.916724 255 191 173
-23.4033 -45.6544 -29.5924 0.230338 -0.0175932 0.972952 255 195 181
-20.8077 35.028 39.3735 0 0 1 187 156 156
21.4778 16.5171 4.44714 -0.15387 -0.597174 0.787215 235 168 160
-2.03127 3.85925 -9.2385 -0.00555839 -0.660233 0.75104 255 186 163
29.4623 32.3207 35.0132 0.180648 -0.563935 0.805819 235 166 150
29.8237 33.3111 49.3672 -0.197028 0.969395 0.146467 234 154 145
-18.6617 10.3665 -1.4171 0 0 1 243 123 110
25.5866 31.9562 38.2734 0.46474 -0.828524 -0.312355 233 158 140
-35.6702 -38.9196 -26.7483 0.181336 0.138207 0.973661 255 193 176
-8.76806 3.98771 -9.29288 0.190416 -0.657483 0.729012 254 179 163
-6.38403 8.40265 -6.29934 0.0877049 -0.615714 0.783073 236 170 172
34.1548 5.12256 -4.87731 0 0 1 231 151 136
11.1084 27.3815 28.4192 0.00599949 -0.94903 0.315129 239 187 172
22.4891 23.7977 19.573 -0.10074 -0.888135 0.448406 239 188 172
6.61546 37.2611 35.3804 0 0 1 236 176 159
-19.2438 -4.9012 -16.7004 -0.0217804 0.660284 -0.7507 255 174 153
2.36118 16.1516 0.211687 -0.0173675 0.810743 -0.585145 234 162 152
19.5017 29.2278 32.5739 -0.0539123 0.918096 -0.392675 234 167 148
39.8829 21.2013 18.6256 0.040487 -0.831275 0.554385 240 186 168
35.5872 31.7812 43.9308 -0.523645 -0.849258 0.0675019 236 169 152
-8.36563 6.05331 -7.14413 -0.387419 0.762952 -0.517505 253 166 153
13.1143 -51.5841 -32.3464 0 0 1 245 182 171
20.6401 19.2477 6.76157 -0.144066 -0.649363 0.746708 239 190 185
25.7178 8.0781 0.900945 0.208764 0.580005 -0.787408 240 185 170
-41.006 -27.2398 -31.3896 0.129886 -0.223664 -0.965973 255 178 158
28.6969 19.4298 14.3247 -0.223481 -0.7855 0.577101 239 181 163
34.2777 28.0324 30.4691 0.223633 0.891915 -0.393035 236 174 156
18.2581 28.3562 30.6711 0.0642709 -0.94329 0.32569 236 171 153
19.1792 6.74001 -2.93421 -0.313704 -0.703525 0.637685 241 190 175
-9.49549 -44.5458 -32.0769 -0.137848 0.0860913 -0.986705 255 192 176
35.0529 34.8386 32.3455 -0.0982837 -0.912602 0.39686 235 168 156
29.0591 38.6164 44.3255 0.0264545 0.988018 -0.152054 234 158 145
-22.1765 -4.78575 -16.5289 0.0473524 0.6687 -0.742023 252 146 130
35.222 24.0357 14.0622 0.0146297 -0.774595 0.632289 234 166 154
43.5266 34.4062 34.001 -0.193148 -0.0607999 -0.979284 229 164 145
31.7583 0.173293 -8.42554 0 0 1 228 131 113
38.7769 19.581 8.69784 0 0 1 232 156 143
-28.1909 -44.8445 -28.797 0.218913 0.0133742 0.975653 255 197 182
-0.997675 -36.0941 -30.1232 0 0 1 243 159 145
14.3526 29.267 34.1193 0.105131 -0.941648 0.319761 236 171 154
33.9016 37.8191 40.8307 0.171023 0.948606 -0.266268 236 170 160
-46.9554 -22.1669 -31.0353 -0.102548 0.217425 -0.970675 255 172 153
-3.93429 -4.5081 -16.4534 -0.0151631 -0.373977 0.927314 254 183 165
19.407 34.8523 27.1131 0.198785 0.865623 -0.459546 235 171 154
-9.9448 -42.9329 -31.7227 0.0980049 -0.181022 0.978584 255 192 176
19.0418 4.61142 -7.51051 0.278229 0.926212 0.254403 228 136 124
-26.7189 -41.2275 -28.5953 -0.545396 -0.234664 -0.804659 255 193 176
-19.6507 34.7643 39.8581 0.323401 0.90379 -0.280314 190 158 158
13.075 22.1139 15.2208 -0.294054 -0.880204 0.372524 236 171 154
22.2134 30.5086 35.8524 0.154615 -0.925189 0.346584 233 162 143
-0.536132 6.15177 -6.93159 0.0368179 -0.685163 0.727459 255 187 163
-17.3791 33.6062 52.0859 0 0 1 202 168 149
-11.975 1.17093 -11.3682 -0.0947173 0.746777 -0.658296 255 184 162
-35.1299 -57.1679 -28.1742 -0.033424 0.0465605 -0.998356 255 199 186
41.473 26.1617 16.8596 0.0283546 0.79767 -0.602427 235 170 155
-16.5616 -3.89453 -15.8398 -0.00144589 -0.674512 0.738262 255 176 155
-13.6439 -36.4508 -30.4319 -0.0284448 -0.0195826 0.999404 254 185 167
27.5649 24.7472 14.7155 -0.0436422 0.8338 -0.550339 232 157 144
23.8224 26.2684 25.1117 0.0123195 0.725406 -0.688211 236 175 157
32.7783 32.3938 35.0187 -0.61248 -0.0328919 -0.789802 235 169 154
36.9135 38.2569 44.4937 -0.0679961 -0.989168 0.130086 238 170 155
-19.6113 -52.0767 -31.0074 0.283346 -0.445624 0.849196 251 197 186
-39.6472 -39.0183 -25.9995 0.108137 0.292395 0.950164 255 194 176
6.14292 22.2046 7.26112 0.027451 -0.789311 0.613379 236 172 164
18.0062 27.0257 26.5956 -0.111999 0.93929 -0.32433 236 170 151
16.4318 31.1173 41.9058 0 0 1 228 144 126
-23.1824 1.99818 -9.97655 -0.0522415 0.703801 -0.708474 248 124 106
17.6664 28.0488 29.721 0.0711246 -0.948231 0.309516 236 173 155
18.194 12.5955 3.21789 -0.19544 -0.738634 0.645154 239 182 168
18.6705 -29.1553 -24.9766 0 0 1 241 172 154
41.1851 14.9615 9.12966 0.161524 -0.780035 0.60453 240 188 170
-3.27417 -28.389 -28.9238 0 0 1 226 112 96
-19.3183 2.89411 -9.40197 0 0 1 248 116 98
20.6336 34.8692 27.7892 0.213444 0.887017 -0.409441 235 171 154
16.8333 6.74199 -5.11186 -0.500686 -0.85488 0.135994 243 209 200
38.7213 -42.438 -28.7328 0 0 1 207 137 121
-20.4185 -46.433 -29.7536 -0.244841 0.13968 -0.959449 249 193 182
-41.6943 -39.4938 -25.0259 -0.0809761 -0.372866 -0.924345 249 174 156
36.9075 -42.8513 -32.5412 0 0 1 185 78 65
1.3726 13.3745 1.30975 -0.0354128 -0.817301 0.575122 255 188 163
40.4709 29.9834 38.044 0.129632 0.946896 -0.294252 238 179 160
35.0591 12.547 6.48257 0 0 1 239 185 167
-50.9972 -47.362 -25.4792 0.148473 -0.246106 -0.957804 254 192 175
-7.58353 16.5855 4.68789 0.0245132 0.822994 -0.567521 255 187 160
4.52827 19.5614 3.73055 0 0 1 236 172 164
19.3526 27.2576 26.8049 0.0642327 -0.939248 0.337176 235 163 143
-0.0425483 3.89089 -8.73259 0.147573 -0.552655 0.820241 255 187 164
18.2444 17.0311 8.09441 -0.131167 -0.758501 0.638335 238 178 162
32.1618 26.4278 26.2904 0.12339 0.899806 -0.418477 235 164 144
16.465 -49.0618 -30.4277 0 0 1 246 182 169
-36.6108 -32.9949 -28.6406 0.0254511 0.408929 0.912211 255 185 166
-0.988061 1.68159 -11.4203 -0.260952 0.624029 -0.736541 255 186 164
-3.4155 5.66153 -7.4987 -0.204917 -0.66144 0.721461 255 185 163
-19.4057 0.246156 -11.5246 0.0251845 -0.685393 0.727738 255 167 146
18.4777 -49.4705 -30.1281 0 0 1 244 179 166
-33.652 -49.9512 -26.8563 0.269799 -0.0368357 0.962212 255 198 185
-33.3603 27.2217 25.9864 0 0 1 217 100 91
-30.062 -7.32957 -19.4583 0.0787137 0.674335 -0.734219 253 153 133
34.4268 27.0807 28.3898 -0.157449 -0.891162 0.425488 237 175 156
-40.4748 -32.7539 -28.9205 -0.0390359 0.473991 0.879664 255 185 165
30.9302 -37.128 -25.5382 0 0 1 234 150 125
-21.0859 -40.9471 -29.9519 -0.140578 -0.0892451 -0.986039 255 192 176
-22.3737 -39.8745 -29.8323 0.366253 0.106644 0.924384 255 191 174
21.5669 24.1275 12.3691 0.108783 0.802351 -0.586856 237 178 169
-20.5471 -2.04999 -14.0361 -0.0103351 0.687962 -0.725673 255 162 141
-4.81983 -38.298 -30.8775 0.211483 0.151889 0.965507 250 178 162
-46.1432 -33.4993 -28.4618 -0.0584347 -0.462473 -0.884706 255 200 179
-24.2829 -3.62661 -15.6075 -0.0235735 -0.709802 0.704006 255 168 146
-47.4032 -21.0401 -30.7363 -0.0845821 0.224005 -0.970911 255 169 149
-32.0933 -38.4465 -27.7076 0.146236 0.20602 0.967559 255 191 174
3.9178 22.358 12.7912 0.0958899 0.928365 -0.359088 238 184 173
-13.5211 -54.3229 -35.5233 -0.15771 0.27677 -0.947906 255 198 183
-24.5885 -56.2606 -32.1523 0 0 1 254 199 186
0.981008 5.9447 -7.34858 0.103708 -0.515333 0.850692 255 187 163
26.5775 38.153 40.2948 -0.047621 -0.973303 0.224528 234 168 154
17.1988 32.5543 22.2153 -0.124124 -0.860483 0.494127 230 142 126
33.2713 38.4762 44.3545 0.268607 0.956613 -0.112881 236 166 156
-16.2701 5.85497 -6.08959 0 0 1 253 172 148
4.13995 27.8177 29.6981 0 0 1 235 175 167
28.7634 37.9661 39.5793 -0.0819243 -0.981738 0.171693 235 168 156
26.3659 20.0575 8.70314 0.0850706 0.580652 -0.809695 230 148 135
23.729 15.3405 7.61283 -0.213097 -0.717397 0.663273 239 182 166
-23.1715 -40.8027 -29.5995 0.180127 -0.366696 -0.912737 255 192 176
29.9158 28.239 29.7354 -0.0118493 -0.944858 0.327266 234 160 140
-46.0237 -25.7047 -31.5729 0.0463101 0.408956 0.911378 255 176 156
-43.2924 -34.3701 -28.1417 -0.0558762 0.489092 0.870441 255 189 169
-3.29387 9.92084 -3.21496 -0.285107 -0.673537 0.681954 255 181 158
-16.6418 -55.1516 -32.892 0 0 1 252 203 192
18.5435 8.95386 -0.409175 -0.143385 -0.71954 0.679487 239 185 170
-29.6126 -34.235 -28.87 0.126043 0.116401 0.985172 255 185 169
36.3031 29.7938 35.6935 -0.189699 -0.922892 0.335088 237 176 158
-21.8818 -47.1264 -30.1467 0.119356 -0.161138 0.979688 255 196 181
-27.0697 -42.1818 -28.5326 -0.234557 -0.0085856 -0.972064 255 194 178
-3.52706 9.25008 -4.31551 -0.267808 -0.914275 0.303941 253 171 149
13.7851 16.3973 6.17698 -0.171983 -0.726963 0.664791 238 178 164
-4.7567 8.01683 -5.5085 0.395172 0.867557 -0.301965 255 175 157
-28.289 -43.0295 -28.258 0.277434 -0.0520789 0.959332 255 195 179
-51.5093 -49.0205 -25.1325 -0.309546 0.251171 0.917112 254 192 176
2.06798 -0.562181 -14.5895 0.0325714 -0.470608 0.881741 254 187 169
-16.0607 -41.4974 -30.7126 0.0853688 0.565096 -0.820596 255 193 177
-3.05407 34.8722 31.8809 0 0 1 231 167 151
-18.5891 -50.4688 -31.5693 0.336327 -0.252333 0.90731 255 197 182
-29.7471 -51.2317 -28.4097 -0.328119 0.174276 -0.928421 255 198 184
25.5173 38.7087 46.102 -0.345608 0.924796 -0.159084 233 163 153
-31.8081 -5.09458 -17.449 -0.0411761 -0.775687 0.629773 255 169 147
-45.8296 -24.2174 -32.5225 -0.315295 0.0297118 -0.948528 243 114 94
27.3472 38.6216 44.0617 -0.0249151 -0.993948 0.106988 234 164 152
-23.2852 -43.4208 -29.5191 0.220359 0.0131921 0.97533 255 194 179
-8.44465 -48.13 -33.5535 -0.414081 -0.309782 0.855904 255 193 177
-34.5963 -59.0318 -27.7823 0.34175 -0.0987078 -0.934593 249 204 192
-16.7787 8.6903 -3.33162 0 0 1 247 132 113
-0.359002 -42.3372 -32.0766 0.030033 0.0644457 -0.997469 246 169 157
-31.2375 -54.1945 -28.6416 0.392336 -0.232651 0.889913 255 199 185
29.3968 11.4832 5.32208 0.194264 0.668844 -0.717572 239 183 166
-36.2056 -13.8705 -25.863 0.258237 0.497121 -0.828362 255 170 148
-19.2418 22.9576 16.0214 0 0 1 240 135 128
-14.4561 -43.8295 -31.7213 -0.0681573 0.124911 -0.989824 255 195 179
-32.1336 -53.1646 -31.4025 -0.262467 0.279911 -0.92345 239 200 209
43.1196 24.642 23.4287 -0.322223 0.823716 -0.466546 238 179 159
19.2755 4.02353 -5.62566 0 0 1 241 188 173
42.2515 32.5811 29.4565 -0.131253 -0.889212 0.438262 234 172 155
37.327 20.5148 9.89353 0 0 1 233 159 145
-49.8018 34.8322 40.5277 0 0 1 206 130 109
5.43209 17.467 2.03574 0 0 1 233 156 145
2.56056 24.3812 18.0398 -0.137064 -0.940227 0.311747 234 136 121
-14.9645 -4.87793 -16.8574 0.0266396 -0.676115 0.736314 255 170 150
-31.9442 -48.8051 -26.8524 -0.338247 0.0421798 -0.940112 251 200 190
0.329058 17.236 6.79709 0.108348 0.783682 -0.61164 255 188 162
34.7057 31.6199 40.4422 0.314026 0.91732 -0.244768 234 161 143
-35.4306 -37.764 -26.9674 -0.226677 -0.210747 -0.950896 255 191 174
-4.96284 -51.8668 -36.4494 -0.455223 0.217088 -0.863508 239 161 149
12.1237 28.3663 31.7865 0.0506149 -0.959308 0.277787 238 180 164
-35.1238 -40.4894 -26.6659 0.222719 0.129052 0.966303 255 196 179
-48.9267 -27.7393 -31.1483 0.016555 -0.148291 -0.988805 255 177 156
26.2664 38.6951 44.3953 -0.0202038 -0.999608 0.0193847 234 164 152
21.5815 35.3657 29.359 -0.310752 -0.864375 0.395334 234 171 154
-53.0479 -47.6324 -26.1165 0 0 1 255 191 175
-38.2952 -24.0036 -30.7014 0.54686 -0.00315249 -0.837218 255 175 154
9.91104 16.8379 2.2847 -0.233802 -0.68648 0.688536 235 165 155
-27.6373 -43.9265 -28.4064 -0.34645 0.078568 -0.934772 255 196 181
36.2518 28.9676 33.6446 0.123871 0.942338 -0.310893 237 179 161
-25.1951 27.1059 26.0585 0 0 1 203 121 125
39.4199 30.935 41.237 -0.301787 0.855798 -0.42016 238 180 159
2.08236 14.1615 2.49355 -0.00269014 -0.832067 0.554668 255 188 163
-11.4414 2.29028 -10.0545 0.207529 0.65834 -0.723547 255 184 162
24.4152 19.4267 7.75779 0.216465 0.634166 -0.742278 233 164 154
9.66631 10.0153 -2.34433 0 0 1 240 186 172
-46.7577 -41.4989 -26.1922 -0.274235 0.223874 0.935241 255 192 174
27.1624 13.1409 6.4639 -0.167764 -0.718443 0.675051 239 182 165
26.1997 25.8582 24.4129 -0.134484 -0.832129 0.53803 236 173 155
26.1987 27.5959 27.8067 0.0374324 0.9168 -0.397589 235 169 150
-50.5683 -43.183 -27.0168 -0.255356 0.375843 0.890806 255 190 173
-1.41248 5.20064 -8.06205 -0.0627976 -0.739601 0.670109 255 186 163
1.8095 28.2047 30.9954 0 0 1 232 167 161
28.1553 29.7204 32.4278 0.112317 -0.800173 0.589158 235 167 148
-34.6003 -47.9 -26.4 0.323538 -0.0827499 0.94259 255 198 185
-27.029 -12.8147 -23.5689 0.12921 0.555935 -0.821122 255 173 151
-7.66027 17.4814 5.98022 -0.0571433 0.75583 -0.652269 254 185 159
-18.2257 -44.6858 -30.6405 0.219622 -0.129828 0.966908 255 195 180
-30.2259 2.76891 -7.96193 0 0 1 244 96 79
-24.357 -2.18459 -14.1916 -0.0464056 -0.774255 0.631171 255 159 137
-17.3029 -47.8549 -31.3797 0.235807 -0.197749 0.951467 255 196 181
5.86481 14.8467 1.15401 0.662606 -0.699675 0.267223 254 217 202
-2.27404 33.5019 19.984 0 0 1 238 180 161
8.04431 29.3013 36.5472 0 0 1 236 181 171
29.2233 2.37305 -4.34833 0.146145 0.645794 -0.749395 241 187 168
-34.08 -27.7711 -29.8331 -0.0795597 0.586028 0.806375 255 178 159
-18.9376 -11.3647 -21.5344 0.066314 0.542936 -0.837151 254 183 166
-14.5321 0.851042 -11.3636 4.60277e-05 0.70044 -0.713711 254 171 148
9.78904 37.2976 32.3514 -0.143511 -0.982407 0.119504 236 177 159
20.0704 -8.21031 -14.3565 0 0 1 229 128 112
-28.3868 19.0247 13.1868 0 0 1 235 108 91
-10.8233 14.8282 1.81012 0 0 1 249 169 146
14.26 37.4895 33.9568 0.76986 -0.144108 0.62173 235 174 156
-1.92485 6.8303 -6.30977 0.00052124 -0.706557 0.707655 255 187 163
-8.47698 -47.7365 -32.9282 -0.208259 0.387362 -0.898097 255 193 177
2.44476 -26.3856 -27.6052 0 0 1 221 100 80
-31.7602 -40.033 -27.5317 0.22202 0.152614 0.963024 255 193 176
-20.3614 -7.46308 -18.7513 -0.01439 -0.618797 0.785419 255 174 155
2.85868 13.2201 1.08416 0.0533805 -0.826906 0.5598 255 188 163
40.0411 34.1856 32.327 -0.18497 -0.904128 0.385149 234 170 155
27.5472 32.4296 54.1798 0 0 1 207 141 119
3.55767 24.1133 17.6312 0.148528 0.861945 -0.484758 235 147 131
4.04482 -13.7247 -21.0731 0 0 1 231 117 99
28.203 3.83207 -6.65614 0 0 1 228 135 123
-25.1601 -5.29572 -17.3799 -0.0465125 0.777543 -0.627107 254 159 138
23.195 19.6555 7.59743 0.223203 0.796012 -0.562623 234 166 157
28.6459 12.8821 6.43139 0.0967577 0.679999 -0.726801 239 182 165
4.21284 11.127 -3.12833 0.83954 -0.523013 0.147071 253 191 168
-33.0459 -47.7339 -26.9676 0.303019 -0.0451674 0.951914 255 198 184
-12.3279 -48.1535 -32.5222 -0.25082 0.361645 -0.897943 255 195 180
28.0352 6.30838 -0.184984 0.0157936 -0.629048 0.777206 241 189 172
28.0498 26.196 16.5432 0 0 1 232 155 141
28.2646 24.9317 23.064 -0.140042 -0.872346 0.468402 236 171 151
29.5974 23.5929 13.0887 -0.00729253 0.657554 -0.753372 234 168 157
25.1991 22.5245 17.7488 -0.136699 -0.863186 0.486028 239 183 166
28.8903 28.6639 19.8117 -0.143435 -0.793534 0.59138 230 148 133
-14.5346 -1.24713 -13.1532 -0.0112215 -0.700706 0.713362 255 179 157
42.0396 26.7822 17.7078 0 0 1 235 173 158
7.22132 36.5012 37.9586 0 0 1 212 103 83
29.6691 26.1822 16.4979 -0.00893125 0.821234 -0.570522 234 164 151
-22.1376 -8.3351 -19.7193 -0.118691 -0.595758 0.794346 253 155 136
-22.5996 -11.2316 -21.7286 0.0574827 0.570655 -0.819176 255 175 154
3.59711 11.1292 -1.97664 -0.506142 0.72638 -0.464965 255 188 163
12.6595 25.5506 23.1622 -0.0749658 -0.925668 0.370835 238 184 169
23.6245 32.7435 48.9129 0 0 1 233 165 160
44.9375 29.1977 31.1129 0.841726 -0.354659 -0.407081 221 197 190
3.63402 13.4393 1.26823 0.21746 -0.832808 0.509059 255 188 163
21.5325 -27.0722 -23.7333 0 0 1 234 148 133
-5.06605 8.68554 -6.67813 -0.0403507 0.862789 0.503951 235 165 166
-2.3708 26.0032 9.60361 0 0 1 240 197 189
-9.77096 -47.4718 -34.7556 0.19784 -0.751297 -0.629613 240 161 150
4.09361 35.3162 25.4575 0 0 1 239 182 163
0.787092 -54.4866 -36.9014 0 0 1 244 187 181
-22.4895 -45.7612 -29.8298 0.237823 -0.106944 0.965403 255 195 181
40.5164 15.7211 10.2884 -0.15284 0.757118 -0.635147 241 189 172
-34.8023 -43.4759 -26.2673 -0.2121 -0.0794014 -0.974017 255 197 183
19.254 22.4906 9.65602 -0.0188902 -0.773993 0.632912 236 169 159
-7.01763 8.01208 -5.30118 0.761458 0.270351 0.589145 253 163 150
-24.8952 -35.2335 -29.471 0.244465 0.0590469 0.967859 255 184 166
7.2127 -19.9582 -22.9204 0 0 1 239 152 142
16.5084 -5.6871 -13.858 0 0 1 232 140 124
35.0421 21.0847 10.5084 0.0197344 0.763817 -0.645131 233 162 150
-8.37229 -45.12 -34.1457 0.957564 -0.211084 -0.196253 242 171 166
42.528 25.5455 25.1583 -0.200182 0.923627 -0.326864 238 181 161
16.6461 37.2806 33.8364 -0.154553 -0.971742 0.178411 235 172 154
10.6719 25.8546 12.0645 0 0 1 231 147 134
24.3003 8.39868 0.739772 0.189196 0.664378 -0.723054 240 186 170
16.2167 38.4622 53.4579 0 0 1 235 208 201
0.840075 -40.2804 -31.4685 0.850742 -0.497901 0.168326 244 161 148
-11.0898 -5.65004 -17.3244 -0.0274431 0.569982 -0.821198 255 179 160
-42.6204 -35.7775 -27.2796 0.112615 0.52695 0.842402 255 192 172
-21.8357 -51.2404 -30.1342 0.292795 -0.370788 0.881355 250 198 188
-2.44429 16.1044 4.67128 -0.169353 -0.918827 0.356479 255 188 162
-16.986 -45.3518 -31.0928 0.196635 -0.203524 0.959121 255 195 180
40.1575 33.4944 30.6937 -0.143305 -0.906211 0.397801 234 170 155
31.9588 22.1948 19.0859 -0.162443 -0.808256 0.565981 236 169 149
36.1852 23.265 13.0571 -0.0326364 -0.772515 0.634157 232 159 146
-26.0164 -55.8471 -31.4904 -0.314652 0.434857 -0.843738 255 199 185
-34.4028 -33.7576 -28.3766 0.241234 0.201436 0.949331 255 185 166
16.0136 38.1025 39.9435 0 0 1 226 135 114
39.522 29.3424 35.6606 0.072369 0.954492 -0.289323 238 181 162
-11.1386 2.42669 -9.85646 0.122568 -0.603797 0.787659 255 184 163
-7.42019 0.883571 -12.0252 -0.121982 -0.789376 0.601669 255 184 163
31.9682 31.6506 38.6815 0.402806 0.87508 0.268293 232 152 133
-46.6372 -47.3434 -24.5258 -0.198744 0.337797 0.919997 255 192 176
-3.06598 4.94073 -8.65638 -0.0142076 -0.702591 0.711452 255 185 162
-8.33336 -3.21872 -16.288 0.139726 -0.578044 0.803954 253 170 154
12.9035 15.0122 4.43958 -0.174564 -0.745357 0.643405 239 182 168
23.6127 33.8104 26.9384 0.164434 0.943112 -0.288968 230 145 130
13.2751 29.6165 35.5548 -0.14745 0.954747 -0.258296 235 168 151
37.3521 29.8655 36.5107 0.129726 0.950584 -0.282065 237 177 158
-49.4841 33.976 35.8274 -0.0314979 -0.794558 0.606371 208 152 132
-12.1832 -35.3542 -30.4246 -0.0163071 0.0893141 -0.99587 254 184 166
26.3455 9.9165 -0.856406 0 0 1 233 162 152
-36.0211 -4.24446 -16.9303 0 0 1 248 101 81
-3.57295 4.26663 -8.8957 0.0477551 0.673784 -0.737383 254 184 163
30.3461 31.8299 40.7766 -0.0308643 0.998628 -0.0423009 231 148 130
28.9154 34.3339 29.8305 0.152544 0.91185 -0.38113 230 144 131
22.6631 -39.7067 -28.0191 0 0 1 234 147 128
-1.14717 16.8066 5.80761 -0.104401 -0.824298 0.556447 255 188 163
38.0477 23.5936 13.6556 -0.0771247 -0.753024 0.653457 231 153 138
-32.5954 -52.5124 -27.6312 0.336217 -0.20686 0.918786 255 199 185
-5.83027 -7.14369 -18.48 0.578111 0.359693 -0.732399 254 182 165
34.9089 30.4983 36.8119 -0.275919 -0.907743 0.316026 235 166 148
-1.00899 4.63134 -9.03052 -0.0826057 -0.712572 0.696719 246 155 137
35.2128 32.3973 46.2817 0.409498 0.883345 0.228063 234 163 145
-11.4557 -39.7566 -32.5412 0.661278 0.710793 -0.239761 243 162 149
-31.9415 -34.8727 -28.4747 0.103318 0.263125 0.959214 255 186 168
-38.9545 -12.8291 -25.5578 0 0 1 255 167 144
1.44651 21.3555 6.32078 -0.0127914 -0.822471 0.568662 235 181 174
-2.98278 23.1718 13.7546 0 0 1 238 135 119
24.1116 29.7228 20.2111 0.24333 0.561947 -0.790573 231 145 130
-3.66529 16.5197 4.75734 -0.170426 -0.954114 0.246215 255 188 162
-26.1746 -5.49014 -17.5251 0.0439623 0.630287 -0.775116 255 167 145
-12.1269 16.0378 3.78538 0 0 1 250 167 142
3.61848 16.155 5.82661 0.0572704 -0.844109 0.533105 255 188 163
-16.271 -52.5588 -34.4087 -0.154217 0.453236 -0.877949 255 197 183
-30.639 -42.9148 -27.5645 0.26428 0.0225114 0.964183 255 196 180
30.8153 10.7641 0.169621 0 0 1 236 176 170
31.2243 22.0384 11.3455 -0.073339 -0.778297 0.623599 234 167 155
-28.1175 -45.1242 -28.1902 0.25923 -0.0414691 0.964925 255 198 183
10.9793 4.55959 -9.14786 0.194697 0.676461 -0.710277 245 192 177
40.3849 8.17192 1.37056 -0.487196 0.473367 -0.733869 243 195 176
-26.5037 -42.9445 -28.6628 0.257144 -0.0183589 0.966199 255 195 179
26.9446 8.10253 -2.26554 0.157311 0.686313 -0.710089 236 171 162
26.5039 19.6501 13.7021 -0.222915 -0.790116 0.570986 239 181 163
37.2826 22.7723 21.2328 -0.0297342 -0.854123 0.51922 240 189 171
17.9149 37.6006 35.9188 0.0830208 0.981801 -0.170803 233 166 147
-31.4617 -55.1383 -28.761 -0.360543 0.247827 -0.899216 255 199 185
-17.7475 -2.16698 -13.9249 0.0358759 -0.71123 0.702043 255 175 154
10.2211 13.292 -0.990359 0.627892 0.123807 -0.76839 238 175 165
-45.008 -41.4892 -25.6576 0.298643 -0.200204 -0.933129 255 192 175
31.9877 13.3148 3.05276 0.0473486 0.578305 -0.814446 235 176 169
27.6029 33.4368 36.3379 0.504094 -0.522738 0.687485 235 166 149
-33.9384 18.5377 14.0464 0 0 1 225 99 80
15.433 29.0458 33.1267 -0.106295 0.934803 -0.338887 236 173 155
21.8345 37.9148 38.746 0 0 1 232 163 144
10.345 24.8182 10.8131 -0.105978 -0.741049 0.663034 231 148 135
43.682 26.6433 27.8416 0.409251 -0.871682 0.2696 238 177 156
33.0732 33.1435 34.8304 0.11575 -0.162883 0.979832 235 170 157
-16.0374 -45.5676 -31.2619 -0.18076 0.159157 -0.970564 255 195 180
-16.8501 -48.9054 -31.7685 0.300064 -0.311293 0.901698 255 196 181
-4.41335 -46.1133 -32.9701 0.0124072 0.301692 -0.953325 254 190 174
-21.105 -7.56493 -18.8714 -0.0462901 -0.634431 0.771592 255 174 154
27.7515 31.9082 43.0765 0.0304701 -0.98645 0.16121 230 145 127
8.62628 13.5463 -1.48206 -0.258213 -0.748596 0.61068 238 177 168
-17.908 -6.29861 -17.7909 0.000175406 -0.639625 0.768687 255 175 155
22.2753 23.2503 18.3238 0.0910583 0.880132 -0.465914 239 185 169
-5.57747 -46.4121 -33.094 0.0725708 -0.338868 0.938031 255 191 175
-35.069 -49.2785 -26.3953 0.39697 -0.11312 0.910834 254 198 189
11.1389 29.185 34.8403 0.0380324 -0.967215 0.251095 237 176 162
-0.376889 10.082 -2.86625 0.0518877 -0.769068 0.637057 255 188 163
-29.3011 -39.4617 -28.2289 -0.233702 -0.112021 -0.965834 255 191 174
-30.2046 -44.016 -27.5489 0.162545 -0.00871593 0.986663 255 198 183
-35.8487 -1.78821 -13.5825 0 0 1 248 112 92
-46.0236 -51.3514 -23.4696 -0.0740189 -0.0814068 -0.993929 254 194 179
-27.6178 11.1806 1.9576 0 0 1 231 100 92
-15.1404 -1.80898 -14.1603 0.0391475 -0.631189 0.774641 255 174 151
-14.5367 7.69044 -4.38971 -0.00541232 0.986214 -0.165385 253 164 141
3.90016 7.59995 -6.98156 0.0926358 0.837515 0.538505 251 183 156
-31.1554 -41.6975 -27.4761 0.228165 0.0816271 0.970195 255 194 178
42.4208 30.0619 38.6495 0.211062 0.967662 -0.13814 237 178 157
-17.5592 22.271 13.4743 0 0 1 235 144 133
3.20228 3.98439 -9.84176 0.832303 -0.179606 0.524417 255 187 164
36.901 30.438 40.4778 0.519446 0.852211 -0.0625569 231 199 188
9.40333 -47.7151 -34.0954 0 0 1 231 134 120
-2.35912 3.88588 -9.47389 0.0243501 -0.598746 0.800569 255 186 163
-23.7848 -13.0657 -23.2065 0.122644 0.564942 -0.815965 255 175 153
-4.21696 24.7262 17.8452 0 0 1 236 130 114
35.9169 30.5887 47.3595 -0.666956 -0.696275 -0.265274 235 169 150
33.5154 33.2754 28.8447 0.135432 0.882145 -0.451086 234 169 155
11.9477 7.1134 -5.43143 -0.0807403 -0.836735 0.541623 243 192 177
28.7192 21.785 11.0861 0.0942796 -0.809308 0.579769 235 169 158
19.4762 36.6174 32.43 -0.140684 -0.968174 0.206998 235 170 153
-26.2126 -50.4991 -29.3482 0.308103 -0.262202 0.914507 255 197 183
-30.1999 -47.5967 -27.8479 0.291106 -0.106406 0.950755 255 197 183
-1.7279 15.927 3.58067 0.313449 0.81451 -0.488183 247 168 147
33.0671 27.2512 18.4637 0.0610535 0.86051 -0.505762 234 168 155
5.28381 24.8715 20.3213 0.338935 0.940711 0.0136376 235 169 155
17.858 21.3443 14.0696 -0.131331 -0.689841 0.711949 237 174 158
9.54799 11.8984 -0.40765 -0.30997 -0.0502938 0.949415 240 184 170
-43.187 3.96666 -3.78728 0 0 1 225 140 139
-28.7126 -37.2866 -28.6435 0.227982 0.140121 0.96353 255 189 171
29.1909 4.42145 -2.61119 0.792322 0.0301938 -0.609356 242 193 177
18.6105 26.6529 25.2841 0.0942131 -0.917555 0.386286 236 167 147
-30.4764 -37.6131 -28.1711 -0.207668 -0.13993 -0.968139 255 190 172
-3.04396 -35.0296 -30.5574 0 0 1 237 143 130
-6.4362 -3.18556 -15.448 -0.0596936 -0.684284 0.726769 254 183 164
-24.8267 -41.4716 -29.2448 0.332193 0.0443705 0.942167 255 193 177
-24.4986 -52.5145 -30.5678 -0.396868 0.301519 -0.866938 255 198 184
-24.4127 9.76072 -1.11046 0 0 1 232 175 172
-6.46772 0.450377 -12.3946 0.00475834 0.687509 -0.72616 255 183 164
21.9601 9.06593 0.75225 -0.20994 -0.681996 0.700576 240 185 170
17.9402 20.6022 13.0927 0.0406048 0.822618 -0.567142 237 173 157
41.694 7.16882 -0.792479 0 0 1 237 175 153
-38.2839 -31.4657 -29.38 0.0176881 0.444425 0.895641 255 183 164
23.4704 38.7872 45.557 0.0262228 0.998652 -0.0447865 232 162 151
24.9509 21.3141 15.611 -0.172925 -0.8456 0.505031 239 182 165
-2.00035 22.9729 9.68387 0.981001 -0.164057 -0.103553 232 144 131
-41.0343 -56.3476 -26.1077 0.377449 -0.179657 -0.908436 254 199 186
-16.9018 -47.5799 -31.4609 0.255696 -0.206693 0.944403 255 195 181
34.6622 38.6707 46.1317 -0.368936 0.82865 0.420982 237 171 159
30.1714 6.0862 -0.761542 0.818147 -0.423896 0.388519 243 193 176
21.6591 17.2952 4.9143 -0.160505 -0.693703 0.70215 239 187 180
41.2517 18.2647 13.5963 0.144481 -0.831984 0.535656 240 187 168
27.284 31.0568 34.2484 0.207665 -0.803502 0.557907 235 166 148
16.332 7.23685 -3.84662 0.296177 0.868009 -0.398546 241 189 174
24.7036 24.5162 21.2504 -0.070253 -0.892018 0.446507 239 188 172
-21.0129 31.877 54.2063 0 0 1 210 192 178
-25.1529 -46.129 -29.3236 0.249919 -0.0678739 0.965885 255 196 181
-11.4752 7.29386 -5.31664 -0.100751 0.68802 -0.718664 254 169 148
-14.1291 -41.6814 -31.0184 -0.211458 0.173324 -0.961896 255 192 176
-12.1957 -7.46886 -19.0089 -0.0879738 0.572739 -0.815003 253 169 152
30.5911 31.7796 39.5687 0.00900538 0.996993 -0.0769646 231 150 131
31.0727 34.2798 35.6347 -0.243848 0.401411 -0.882841 235 169 156
39.8138 22.6802 21.045 -0.0661683 0.877989 -0.474086 240 186 168
-54.4978 29.0774 28.7936 0 0 1 195 149 127
-14.1136 -48.1737 -32.3057 -0.155228 0.176174 -0.972043 255 195 180
-3.64966 1.73514 -11.1091 0.0163625 -0.734142 0.678799 255 185 163
10.0756 22.2593 7.81356 0.180063 0.709178 -0.681648 235 169 160
21.2108 20.3742 13.0298 -0.100206 -0.816101 0.569155 238 180 163
-4.0051 18.4462 6.72798 0.413265 0.303279 -0.858623 252 173 149
15.993 10.0506 -0.260955 -0.214498 -0.753734 0.621189 239 184 170
44.2394 18.5616 12.5904 0.712801 -0.552264 -0.432342 238 184 166
17.3732 15.0745 5.58862 0.186734 0.736577 -0.650066 239 181 166
-10.9504 -3.25211 -15.6999 -0.263104 0.415401 -0.870757 255 181 161
36.1571 22.2399 20.2747 -0.137159 -0.844378 0.517892 240 191 175
7.35225 20.383 4.97858 -0.299483 -0.671245 0.678042 237 174 167
28.7528 26.8782 26.5539 0.0801392 -0.859797 0.504308 235 165 145
7.03136 16.3981 4.15832 0.460415 -0.804772 0.374646 254 212 196
-38.9429 18.0415 14.5148 0 0 1 232 166 164
41.9201 23.1511 12.4981 0 0 1 231 155 139
16.0578 38.233 52.8938 0 0 1 235 193 185
24.1405 25.7627 24.6684 0.050599 -0.837422 0.544209 237 199 186
32.0814 32.1355 34.8294 -0.266601 -0.0787862 0.960582 235 168 153
-22.824 -13.1433 -23.1728 -0.107489 -0.563107 0.819364 255 175 154
-16.1393 -47.3124 -31.5789 0.221245 -0.214623 0.951308 255 195 181
-38.2543 -10.5972 -23.6592 0 0 1 248 119 95
-23.6763 -52.9879 -30.7856 0.328016 -0.243667 0.912706 255 198 184
-36.473 -0.691067 -11.5717 0.115412 -0.707309 0.69742 248 123 101
42.7598 -30.6526 -26.1933 0 0 1 185 79 67
42.9224 12.2889 4.61243 0 0 1 238 179 158
-25.6442 37.1236 46.8335 0 0 1 202 162 164
13.7998 27.3295 27.9923 0.036197 -0.952575 0.302144 238 183 167
26.9766 7.33667 0.668793 -0.129455 -0.650681 0.748235 240 186 170
-0.404717 12.1919 -3.4387 0.0505777 -0.555248 0.830146 240 194 188
-14.6757 -26.0573 -28.9749 0 0 1 230 103 90
35.7417 37.8066 41.7097 0.146741 0.952895 -0.265438 237 169 157
21.9583 6.41408 -1.95461 -0.284878 -0.698029 0.656963 241 186 171
38.4829 28.5861 33.0671 -0.0755474 -0.932668 0.352737 239 182 164
-37.2052 -43.5146 -25.8333 -0.0659964 -0.0768625 -0.994855 254 203 189
-9.67244 -0.856614 -14.1566 0.138158 -0.638804 0.756863 251 144 127
41.1208 28.4536 19.7337 0.0729164 0.88763 -0.454748 235 171 156
15.563 27.7477 29.1807 0.046418 -0.952832 0.299929 237 178 161
-9.95832 -7.96591 -18.9256 0.105281 0.544774 -0.831948 254 180 164
-1.86713 15.7253 3.93155 -0.304957 -0.850182 0.429175 255 188 162
-46.0639 -23.3748 -31.4007 -0.405754 0.374037 -0.833943 255 173 153
-10.7494 -3.22643 -15.8164 -0.173944 -0.64625 0.743037 255 180 161
24.7211 38.6427 47.4476 0 0 1 232 161 153
38.4185 15.3052 10.2036 0.130167 0.98623 -0.10201 241 192 176
33.4761 29.7388 33.846 -0.35338 -0.794388 0.494035 235 172 154
14.7667 -51.0443 -31.3481 0 0 1 245 181 170
-0.0331263 13.674 -2.47002 0 0 1 237 175 167
13.5644 -45.0834 -30.2511 0.440515 0.541679 -0.715912 246 175 164
-47.4401 -48.0163 -24.3737 -0.189598 0.355694 0.915169 254 192 176
9.66601 -43.0607 -32.7588 0 0 1 233 141 129
29.1956 -41.9964 -26.9645 0 0 1 234 151 126
19.6568 30.5383 36.2855 -0.0605312 0.968163 -0.242892 231 150 130
18.9288 28.0046 29.246 0.0874078 -0.953064 0.289877 235 167 147
-5.38771 -40.5912 -32.5898 -0.000528684 -0.480194 0.877162 243 164 153
43.15 29.422 37.5035 0.334758 0.878927 -0.339741 237 177 156
-8.4425 -45.9423 -32.5377 -0.383365 0.127662 -0.914731 255 192 176
-18.6099 -51.7414 -32.4338 -0.261958 0.518719 -0.813823 255 197 183
-54.7672 -58.8789 -23.8526 0 0 1 250 204 198
23.6076 24.3645 21.0302 0.0853811 0.879173 -0.46879 239 191 176
35.2641 31.6416 41.2362 -0.369484 -0.912354 0.176331 234 165 147
39.7692 17.8305 6.89597 0 0 1 233 162 149
-3.36917 2.49067 -10.4596 -0.113453 -0.697489 0.707558 255 185 163
-8.13039 -52.6842 -35.7675 -0.088652 0.377029 -0.921949 254 194 179
33.4173 38.7571 50.1997 -0.0387793 0.97646 -0.212186 235 168 152
28.1373 37.6432 38.5857 0.00152123 -0.955526 0.294903 234 164 151
-19.4274 -17.2441 -25.681 0 0 1 237 117 104
-10.7366 -40.1229 -31.0872 0.0271054 -0.108953 0.993677 255 190 173
35.1191 38.6515 46.2188 0.0849287 0.991713 -0.0963934 238 171 159
-5.71297 22.7674 12.7602 0 0 1 243 132 115
-32.3547 37.6547 42.6915 0 0 1 218 151 153
24.4679 38.6843 43.8466 0.0067287 -0.995818 0.0911115 233 162 148
20.5248 24.5605 20.8405 -0.0645184 -0.8945 0.442389 237 174 156
-41.1633 -39.3751 -25.7182 0.128987 0.371138 0.919575 255 192 174
26.2577 25.1468 22.9636 0.0167328 0.90624 -0.422433 237 177 159
8.69001 20.444 10.5834 -0.131431 -0.857393 0.497597 238 177 163
9.96399 15.0322 3.85644 0.0495488 -0.799496 0.598624 242 191 178
-26.2723 -10.2672 -21.5159 -0.139896 -0.586666 0.797654 255 172 151
20.4926 4.88944 -4.04498 0.307967 0.650067 -0.694672 242 190 175
26.9183 24.8846 22.3465 -0.120869 -0.897367 0.42441 237 175 156
-40.1446 -40.3702 -25.5968 0.268783 0.204893 0.941156 255 209 190
28.4412 8.19078 1.64903 -0.0967035 -0.664035 0.741421 240 186 169
16.7924 8.25358 -2.18156 -0.264499 -0.789302 0.554114 240 183 169
-10.7994 -3.11871 -15.7201 -0.173944 -0.64625 0.743037 255 180 160
34.5772 13.6143 3.49553 0 0 1 235 177 168
-12.2945 -8.0636 -19.3742 -0.0229155 0.594918 -0.80346 254 181 163
-27.3814 -25.6832 -28.9887 0 0 1 253 173 155
-47.3403 33.2673 35.2413 -0.0268426 0.547411 -0.836433 209 151 133
20.397 28.3801 30.0525 0.089831 -0.9508 0.296497 234 162 143
-14.4938 -54.0958 -35.2952 -0.0287317 0.644564 -0.764011 255 198 184
22.2486 35.8185 31.139 0.0701531 0.946449 -0.315139 234 168 151
36.9208 37.4831 41.0539 -0.0624821 -0.970113 0.234471 237 169 157
6.19264 16.2024 4.69562 0.381243 -0.840717 0.38451 255 189 163
-27.8615 -49.897 -28.8392 0.25282 -0.162586 0.953755 255 197 183
35.9561 30.9532 39.546 -0.419479 -0.893026 0.162916 236 171 153
26.4718 33.4252 37.3378 -0.363145 0.720163 0.591177 234 164 147
-53.7567 -49.5459 -26.4758 0 0 1 246 169 154
-20.3405 -9.99066 -20.696 0.0785372 0.581713 -0.809594 255 176 156
38.4706 16.433 5.28797 0 0 1 235 169 157
-25.4215 -10.1213 -21.2774 -0.147314 -0.598532 0.787437 255 173 151
17.1189 29.2323 33.0963 0.0980395 -0.907919 0.407518 235 168 150
33.9508 36.9542 37.3202 -0.236073 -0.873341 0.426082 236 172 163
-7.58136 32.5116 37.2694 0 0 1 236 204 201
-12.5857 -49.7355 -33.5202 0.264776 -0.516972 0.814023 255 196 181
19.1758 16.0744 7.18117 -0.15075 -0.751454 0.642333 239 181 165
27.5839 32.7781 37.3569 -0.175536 0.891963 0.416641 234 163 146
27.2306 38.4679 42.5313 0.169538 0.979225 -0.111242 234 165 152
26.1334 15.7172 8.83664 -0.24424 -0.719551 0.650072 239 182 165
-21.0841 -13.8122 -23.3419 0.110061 0.50676 -0.855033 255 181 162
17.9325 -48.0313 -29.8898 0.188888 0.23363 -0.953802 244 179 166
28.4305 33.4628 36.0568 0.436292 -0.448732 0.779929 235 166 150
24.1277 22.46 17.4848 -0.141676 -0.86747 0.47689 239 183 166
32.4229 17.5978 13.4076 -0.129871 -0.79187 0.59672 239 184 167
13.3388 -39.9459 -29.761 0.301233 -0.271889 -0.913967 243 167 154
-30.8036 -56.8717 -29.7771 0.473554 -0.445578 0.759741 255 199 185
-5.64988 6.4057 -6.83912 0.35111 0.932033 -0.0896516 255 183 167
-20.1575 -8.80984 -19.804 -0.0246458 0.610211 -0.791855 255 176 157
-43.5122 -32.291 -29.3045 0.0690396 -0.50729 -0.859006 255 185 165
-22.408 -43.1234 -29.7009 0.165987 -0.020418 0.985917 255 194 179
-31.8285 -7.47787 -19.9065 0.0618691 0.736163 -0.67397 255 166 144
30.4873 33.0059 27.4694 0.0633421 0.914532 -0.399524 232 157 144
-38.4969 -32.6217 -28.8955 -0.055242 0.435922 0.898288 255 185 165
-21.7346 -49.8868 -30.7195 0.304015 -0.138984 0.942475 255 197 182
-19.8138 -9.99755 -20.7781 -0.00133425 -0.574007 0.81885 252 147 129
0.976768 10.8508 -1.95109 -0.00278199 -0.756127 0.654419 255 188 163
22.559 -49.4861 -29.441 0.162593 0.411963 -0.896577 239 170 155
-44.3674 -55.7407 -23.8129 0.235471 -0.207042 0.949572 253 197 184
31.4217 18.1404 13.4463 -0.149418 -0.78791 0.597388 239 182 165
22.9995 -43.5485 -28.2587 0 0 1 237 160 140
12.4902 30.4601 49.6788 0 0 1 206 100 82
-27.7214 -3.39573 -15.5332 0.0204767 0.848157 -0.529348 255 159 137
-41.0396 3.09537 -5.58963 0 0 1 237 174 172
13.3509 12.5247 2.26681 -0.140995 -0.729137 0.669686 241 189 174
21.4276 31.349 40.0668 0.0671341 0.921312 -0.382985 230 150 131
-47.295 -41.7729 -26.2882 -0.348077 0.25195 0.902975 255 192 174
-11.5337 -33.9476 -30.2583 -0.00881156 0.108333 -0.994076 245 161 145
3.79803 25.3985 20.8955 -0.0914868 -0.904889 0.415699 234 145 128
38.9607 9.72131 3.35267 -0.0914932 0.705279 -0.703001 241 185 165
5.20216 13.4807 -0.308111 0.901565 -0.431338 -0.0335738 253 202 184
-25.7643 -54.183 -30.6913 0.541746 -0.427426 0.723753 255 198 184
38.3108 31.1855 45.5086 0.868455 -0.269114 -0.416369 237 176 156
-43.4813 -30.2757 -30.3088 0.0247619 -0.422596 -0.90598 255 181 161
15.1128 37.3146 32.8604 -0.0409562 -0.985083 0.167132 235 173 155
-23.5626 -8.577 -19.9981 0.064018 0.557918 -0.827423 255 173 153
19.0543 37.2778 34.8361 -0.284009 0.795052 -0.535939 235 170 152
34.4656 25.9984 16.5391 0.0664577 0.838299 -0.541145 234 169 157
22.1911 28.7849 31.0768 -0.0467313 0.955511 -0.291231 234 163 143
39.4792 21.788 19.4453 -0.0126426 -0.856202 0.516487 240 186 168
27.4113 29.4587 32.1083 0.0346565 -0.877804 0.477765 235 167 148
14.1162 38.5942 45.1246 0 0 1 234 180 175
35.9247 38.4931 47.2927 0.165505 0.984511 -0.0578485 238 168 151
41.4662 27.5422 31.0601 0.120385 0.854751 -0.504884 240 187 168
-15.9805 32.2628 50.669 0 0 1 204 167 149
-21.6711 -45.6634 -30.0148 0.160254 -0.0529108 0.985657 255 195 180
22.7684 31.1639 38.161 0.127581 -0.978781 0.160345 232 156 138
42.0815 36.7873 39.5793 -0.126799 -0.934859 0.331604 235 173 158
8.02728 36.0433 27.4177 0.0581221 0.975534 0.212025 237 179 161
33.0449 30.8345 35.0647 0.596365 0.720498 -0.35388 235 168 151
29.3576 12.2 5.83564 -0.199712 -0.680314 0.705187 239 182 165
1.24845 20.0832 4.89384 -0.0627629 0.774867 -0.629 233 157 146
0.35056 -6.72334 -18.1523 0 0 1 252 179 161
34.569 30.1155 35.3964 -0.328708 -0.865932 0.376978 236 171 154
-27.396 -38.1474 -28.846 0.181845 0.135222 0.973985 255 190 172
37.0356 24.592 14.6868 0.00964335 0.749086 -0.662402 232 154 140
5.17258 7.24174 -6.69829 0.308823 0.9263 -0.215863 247 183 162
32.8523 37.7876 38.1182 -0.145786 -0.956269 0.253566 236 167 158
-25.4544 -27.4827 -29.163 0 0 1 249 164 146
-28.7981 -10.5126 -22.2737 0.111411 0.613116 -0.782098 246 122 104
27.8334 38.2156 41.2292 -0.057425 -0.988723 0.138307 235 167 155
-9.97935 -36.1942 -30.3413 0.135086 0.0980308 -0.985973 254 184 167
-0.0491264 -43.7603 -33.8499 -0.0677797 0.996509 -0.048737 241 165 156
2.03055 5.93934 -7.5486 0.0401745 -0.627414 0.777649 255 187 163
-32.4606 -54.9491 -31.8505 0.49426 -0.326928 0.805497 255 231 255
-22.6611 -37.1463 -30.0509 0.161179 0.341571 0.925932 253 179 162
-35.8694 -51.9368 -25.984 -0.361707 0.156277 -0.9191 252 211 201
14.5052 -53.1298 -32.6557 0 0 1 245 182 171
-7.34395 23.7192 15.5341 0 0 1 241 132 115
6.94987 14.22 -1.28543 0.224667 0.743066 -0.630379 237 171 162
25.8526 37.3639 37.4515 -0.104472 -0.959657 0.261043 231 154 137
-41.4912 -33.0914 -28.8599 0.0265269 -0.48163 -0.875973 255 185 166
-51.8743 -52.9581 -23.8591 0 0 1 254 192 178
17.6489 13.9394 4.38384 -0.224319 -0.721642 0.654915 239 182 167
28.8234 18.3129 7.3088 -0.0189033 -0.747093 0.664451 233 164 154
-14.6623 30.9834 49.4809 0 0 1 205 168 150
-1.35614 14.8796 3.03895 0.210591 0.733288 -0.646482 255 188 163
-26.0067 -15.9984 -24.9398 0.284552 0.342412 -0.895424 249 167 147
